-0.27479	2.4507	6.631
-0.26993	2.355	3.8621
-0.27098	2.3117	4.4607
-0.2703	2.2534	4.0726
-0.26683	2.1728	2.0925
-0.27371	2.1757	6.0136
-0.26906	2.0866	3.3627
-0.2748	2.0778	6.6359
-0.26868	1.9795	3.1478
-0.27232	1.9535	5.2222
-0.26718	1.8648	2.2911
-0.26721	1.8132	2.3074
-0.27084	1.7854	4.3813
-0.27209	1.7408	5.0929
-0.26992	1.6746	3.8526
-0.26339	1.583	0.13243
-0.26625	1.5486	1.7616
-0.26528	1.4916	1.2124
-0.26595	1.4437	1.5921
-0.26554	1.39	1.3579
-0.2671	1.3464	2.2494
-0.26875	1.3026	3.187
-0.26728	1.2437	2.3505
-0.26715	1.1913	2.2759
-0.26868	1.146	3.1463
-0.26877	1.0943	3.2005
-0.27428	1.0635	6.3403
-0.27505	-4.0528	6.7813
-0.26432	-3.946	0.66514
-0.27475	-4.1549	6.6078
-0.26823	-4.1082	2.8891
-0.26613	-4.1277	1.6929
-0.26612	-4.1792	1.6898
-0.27142	-4.315	4.7073
-0.27226	-4.3812	5.1884
-0.27009	-4.3986	3.9524
-0.27398	-4.515	6.1672
-0.27044	-4.5092	4.1527
-0.2709	-4.5694	4.4133
-0.22575	4.9371	4.4161
-0.22003	4.7608	0.50362
-0.2263	4.8437	4.7867
-0.22199	4.6998	1.8389
-0.22605	4.7332	4.6177
-0.22895	4.7406	6.6007
-0.22222	2.1714	1.9974
-0.22457	2.1422	3.6093
-0.2281	2.1228	6.0223
-0.22825	2.071	6.1206
-0.22338	1.9749	2.7953
-0.22234	1.9139	2.0801
-0.22493	1.8839	3.8492
-0.22132	1.8022	1.3852
-0.21981	1.7387	0.34787
-0.22561	1.7321	4.3161
-0.22667	1.6876	5.0446
-0.22854	1.6483	6.3193
-0.22109	1.5431	1.2253
-0.2201	1.485	0.54619
-0.22881	1.4906	6.5088
-0.2273	1.4278	5.4717
-0.22675	1.3716	5.1001
-0.22538	1.3109	4.1577
-0.22438	-4.0197	3.4785
-0.22248	-4.0373	2.1758
-0.22884	-4.2061	6.5295
-0.22021	-4.0986	0.62235
-0.22587	-4.2565	4.4951
-0.22718	-4.3341	5.394
-0.22776	-4.3981	5.7893
-0.22444	-4.3861	3.5144
-0.22884	-4.5255	6.5276
-0.22818	-4.5654	6.0728
-0.22491	-4.5524	3.8407
-0.18137	4.9581	5.0723
-0.17689	4.7841	1.2382
-0.17683	4.731	1.1864
-0.18181	4.8116	5.4516
-0.17544	4.5919	0.0019344
-0.17949	4.6456	3.463
-0.18185	0.31731	5.4795
-0.18177	0.26431	5.4154
-0.17964	0.20897	3.5911
-0.17616	0.15369	0.61552
-0.18143	0.10552	5.1212
-0.17858	0.051935	2.6895
-0.1769	0	1.2518
-0.18146	-4.0634	5.149
-0.1771	-4.0173	1.4201
-0.18092	-4.1565	4.6854
-0.18208	-4.2361	5.6755
-0.17746	-4.1802	1.7273
-0.17662	-4.2119	1.012
-0.1814	-4.3786	5.0987
-0.18159	-4.436	5.259
-0.17881	-4.42	2.8805
-0.18263	-4.5675	6.146
-0.13415	4.8896	2.9314
-0.13703	4.9415	6.2144
-0.13275	4.7357	1.3365
-0.13404	4.7295	2.8006
-0.1367	4.7706	5.8406
-0.13229	4.5654	0.8115
-0.13556	0.36794	4.5363
-0.13711	0.31899	6.3067
-0.13765	0.26687	6.9214
-0.13701	0.21251	6.1929
-0.13302	0.15474	1.6436
-0.13383	0.10379	2.5679
-0.13387	0.051908	2.6107
-0.13191	0	0.38172
-0.1335	-0.051765	2.1885
-0.13501	-0.10471	3.9169
-0.13308	-0.15481	1.7146
-0.13629	-4.0693	5.3725
-0.13393	-4.0506	2.6751
-0.13733	-4.2068	6.5563
-0.13549	-4.2028	4.4546
-0.13405	-4.2103	2.8188
-0.13458	-4.2789	3.416
-0.1374	-4.4222	6.6412
-0.13739	-4.475	6.626
-0.13749	-4.5314	6.7337
-0.09168	5.0125	6.7731
-0.091045	4.9248	5.6868
-0.088601	4.741	1.507
-0.089468	4.7354	2.991
-0.088259	4.6201	0.92326
-0.090614	4.6906	4.9495
-0.090821	0.42259	5.3032
-0.090078	0.36674	4.0327
-0.088735	0.30967	1.737
-0.08847	0.25729	1.2845
-0.089894	0.20914	3.7187
-0.087805	0.15321	0.14578
-0.087724	0.10205	0.0081096
-0.091166	0.053025	5.8945
-0.091295	0	6.1137
-0.090745	-0.05278	5.1734
-0.089656	-0.10429	3.311
-0.088871	-0.15507	1.969
-0.090537	-0.21064	4.8178
-0.089936	-0.26155	3.7912
-0.09066	-4.0603	5.028
-0.088028	-3.9936	0.52723
-0.089279	-4.1023	2.6667
-0.090332	-4.2032	4.467
-0.091503	-4.3109	6.4694
-0.091269	-4.353	6.0708
-0.08774	-4.2357	0.036232
-0.089658	-4.3804	3.315
-0.088965	-4.3983	2.1305
-0.045062	4.9273	4.1107
-0.044616	4.8267	2.5875
-0.044659	4.7794	2.7338
-0.044119	4.6704	0.88848
-0.044707	4.6805	2.8965
-0.045803	4.742	6.6474
-0.044679	0.41579	2.8037
-0.044136	0.35939	0.9445
-0.04582	0.3198	6.7043
-0.044231	0.25726	1.2684
-0.04558	0.21209	5.8827
-0.044652	0.15583	2.709
-0.045875	0.10673	6.892
-0.044829	0.052148	3.3141
-0.044001	-0.20474	0.48323
-0.045117	-0.26242	4.3017
-0.043915	-0.30651	0.18839
-0.043991	-3.9403	0.44843
-0.045027	-4.0855	3.9934
-0.044196	-4.0615	1.1493
-0.044075	-4.1017	0.73593
-0.045825	-4.3178	6.7208
-0.045469	-4.3372	5.5038
-0.044139	-4.2616	0.95395
-0.045828	-4.478	6.7317
0	4.9258	4.0613
0	4.7766	1.0027
0	4.7872	2.9812
0	4.6485	0.1809
0	4.6165	0.80408
0	0.47156	4.0413
0	0.4097	0.56478
0	0.36326	2.5681
0	0.31876	6.1934
0	0.2603	3.0588
0	0.20703	2.1695
0	0.15508	1.9786
0	0.10438	3.4342
0	-0.30728	0.56639
0	-0.37166	6.0987
0	-4.0825	5.8785
0	-4.0111	1.1866
0	-4.2109	6.7101
0	-4.2578	6.4748
0	-4.1753	1.5484
0	-4.2355	1.8596
0	-4.3725	4.8801
0.045115	4.9332	4.2937
0.044323	4.795	1.584
0.044336	4.7449	1.6296
0.044012	4.659	0.52114
0.044116	4.6187	0.87712
0.045874	0.48027	6.888
0.045345	0.42198	5.0792
0.044315	0.36085	1.5579
0.045685	0.31886	6.2436
0.04513	0.26249	4.3432
0.044641	0.20772	2.6709
0.043987	0.15351	0.43607
0.045503	0.10586	5.6214
0.044936	-0.31364	3.6815
0.045272	-0.36864	4.8296
0.044316	-0.41241	1.5602
0.044373	-3.9745	1.7547
0.045594	-4.137	5.9328
0.044509	-4.0903	2.22
0.044225	-4.1156	1.25
0.04493	-4.2335	3.661
0.044406	-4.2358	1.8674
0.045329	-4.3766	5.026
0.08985	4.9124	3.6436
0.089929	4.8644	3.7777
0.087759	4.696	0.067415
0.091117	4.8227	5.8105
0.088994	4.6585	2.1792
0.088155	0.46146	0.74434
0.08867	0.41259	1.626
0.091089	0.37086	5.7615
0.089762	0.31325	3.4934
0.089487	0.26024	3.0224
0.088743	0.20646	1.7506
0.089438	0.15606	2.9387
0.089959	0.10465	3.8292
0.089403	-0.364	2.8796
0.088433	-0.41148	1.2201
0.090509	-4.0535	4.7708
0.090759	-4.1175	5.1986
0.088408	-4.0623	1.1785
0.087827	-4.0866	0.18338
0.091316	-4.3021	6.1504
0.090395	-4.3113	4.5754
0.1343	4.8952	3.1052
0.13682	4.9337	5.9695
0.132	4.7088	0.47831
0.13408	4.7312	2.8538
0.13537	4.7242	4.3227
0.13402	0.51967	2.7819
0.13639	0.47598	5.4855
0.13698	0.4249	6.1521
0.13491	0.36618	3.7971
0.133	0.30942	1.6173
0.13557	0.26284	4.5492
0.13688	0.21231	6.0466
0.13372	0.15555	2.4402
0.13273	-0.36026	1.3095
0.13353	-0.41421	2.2209
0.13416	-0.46818	2.9402
0.13601	-4.061	5.0555
0.13734	-4.1538	6.5676
0.13182	-4.0381	0.27871
0.13722	-4.2567	6.4355
0.13532	-4.2501	4.2636
0.13203	-4.1981	0.51807
0.1779	4.8631	2.1011
0.18327	4.9568	6.6992
0.18308	4.8984	6.5364
0.18342	4.8541	6.8233
0.17713	4.6362	1.4494
0.1833	0.53307	6.7212
0.1829	0.4787	6.3768
0.17842	0.41511	2.5521
0.18032	0.36708	4.1735
0.17577	0.3067	0.28499
0.17566	0.25543	0.19
0.18054	0.21001	4.3593
0.18058	0.15755	4.3988
0.17805	-0.36246	2.2348
0.18253	-0.42466	6.0641
0.17654	-0.46207	0.94331
0.18277	-4.0927	6.2662
0.18044	-4.0929	4.2722
0.17698	-4.0659	1.3143
0.17801	-4.1414	2.1983
0.17846	-4.2038	2.5821
0.17752	-4.2334	1.7812
0.22636	4.9504	4.8311
0.22897	4.9541	6.614
0.22827	4.8859	6.1377
0.22484	4.7601	3.7884
0.21949	4.5959	0.13366
0.21995	0.51173	0.44905
0.22208	0.46501	1.9024
0.22207	0.41332	1.8945
0.22332	0.36369	2.7492
0.22435	0.31318	3.4582
0.22013	0.25608	0.57232
0.22235	0.20692	2.0895
0.2292	0.15997	6.7736
0.22595	-0.36798	4.5504
0.2282	-0.42473	6.088
0.22317	-0.4673	2.6514
0.22664	-4.0601	5.0228
0.21973	-3.9875	0.29719
0.22519	-4.139	4.0332
0.22779	-4.2396	5.8051
0.22102	-4.1652	1.1803
0.22115	-4.2191	1.2693
0.27353	4.985	5.9127
0.2713	4.8918	4.6438
0.26424	4.7133	0.61954
0.26512	4.6774	1.1168
0.26959	4.7042	3.669
0.27506	0.53327	6.7828
0.26335	0.45952	0.10936
0.26371	0.40903	0.31711
0.27358	0.37129	5.9423
0.26641	0.3099	1.8534
0.26756	0.25937	2.5073
0.27041	0.20971	4.1362
0.27023	0.15718	4.0322
0.26506	-0.35972	1.0826
0.2695	-0.418	3.6142
0.26518	-0.46271	1.1516
0.26323	-3.9297	0.043043
0.27369	-4.1389	6.0036
0.2696	-4.1293	3.6741
0.26758	-4.1503	2.523
0.27524	-4.3224	6.8878
0.27541	-4.3784	6.9813
0.32061	5.0082	6.6402
0.31871	4.9256	5.712
0.32078	4.9043	6.7253
0.31265	4.728	2.7518
0.30715	4.5938	0.064233
0.31385	0.52156	3.3391
0.31734	0.47462	5.042
0.31674	0.42108	4.7478
0.31592	0.3675	4.3501
0.31963	0.3187	6.1622
0.31095	0.25837	1.9203
0.31586	0.20996	4.32
0.31265	0.15587	2.752
0.31083	0.10331	1.8645
0.30737	-0.35755	0.17154
0.31708	-0.42154	4.9174
0.31326	-4.0085	3.052
0.31282	-4.0548	2.834
0.3141	-4.1235	3.4582
0.31404	-4.175	3.4323
0.31005	-4.1735	1.4812
0.31419	-4.2814	3.5051
0.36569	4.9983	6.3308
0.35931	4.8589	3.605
0.36328	4.8597	5.3007
0.36652	4.8498	6.6873
0.35492	4.6447	1.7282
0.35828	4.6366	3.1637
0.35495	0.46451	1.7415
0.36027	0.41909	4.0148
0.35991	0.36633	3.8607
0.36014	0.3142	3.9594
0.35619	0.25897	2.2725
0.36283	0.21103	5.1088
0.36643	0.15985	6.6489
0.36279	0.1055	5.0906
0.36348	-0.31711	5.3861
0.3667	-0.37325	6.7643
0.36123	-0.42021	4.4262
0.35606	-3.9866	2.217
0.35173	-3.9893	0.36501
0.35128	-4.0352	0.17168
0.35506	-4.1303	1.7885
0.36654	-4.3171	6.6963
0.35632	-4.2485	2.3253
0.35939	-4.3374	3.6387
0.40446	4.914	3.6939
0.40495	4.8676	3.8803
0.39594	4.7082	0.45833
0.40502	4.7638	3.9086
0.40805	4.7467	5.0586
0.40158	4.6195	2.6006
0.41247	0.47981	6.7391
0.40123	0.41488	2.4685
0.39519	0.35756	0.17334
0.39531	0.30657	0.21888
0.40142	0.25942	2.5394
0.40837	0.21113	5.1818
0.39669	0.15382	0.7406
0.40813	0.1055	5.0897
0.41096	-0.3187	6.164
0.39593	-0.35822	0.45437
0.40771	-4.0577	4.9301
0.40423	-4.0753	3.608
0.40793	-4.1654	5.0144
0.40452	-4.1828	3.7169
0.39787	-4.1655	1.1906
0.40069	-4.2468	2.2621
0.41273	-4.4278	6.8389
0.44882	4.9077	3.497
0.44369	4.8	1.7405
0.45839	4.9057	6.7681
0.44675	4.7292	2.7899
0.44348	4.643	1.6718
0.45535	4.7142	5.7281
0.44183	0.46257	1.1074
0.4442	0.41338	1.9156
0.43939	0.35779	0.27149
0.45098	0.31477	4.2351
0.44729	0.26016	2.973
0.44704	0.20801	2.8861
0.45074	0.1573	4.1541
0.45548	0.10597	5.7731
0.45238	0.052624	4.714
0.44837	-0.20863	3.3429
0.44407	-0.25829	1.8736
0.44399	-0.30988	1.8429
0.45235	-4.0517	4.7032
0.44644	-4.0507	2.6813
0.44239	-4.0655	1.2982
0.45774	-4.2598	6.5469
0.45226	-4.2614	4.6734
0.4575	-4.364	6.4643
0.43983	-4.2466	0.42179
0.44984	-4.3956	3.8465
0.49804	4.9508	4.8439
0.49374	4.8559	3.5089
0.49047	4.7718	2.4906
0.49375	4.7515	3.5116
0.4892	4.656	2.0974
0.48341	4.5498	0.29643
0.49665	0.42017	4.4121
0.50291	0.37229	6.3605
0.4986	0.31636	5.0182
0.48613	0.25704	1.1423
0.5008	0.21184	5.7026
0.50275	0.1595	6.3083
0.49244	0.10415	3.1033
0.5036	0.053256	6.5727
0.49221	0	3.0337
0.49151	-0.051978	2.8159
0.49347	-0.10437	3.4248
0.50035	-0.15874	5.5622
0.49113	-0.20775	2.696
0.50012	-0.26444	5.4914
0.48467	-3.9466	0.68716
0.49963	-4.1212	5.3381
0.4869	-4.0678	1.3826
0.50461	-4.2691	6.8892
0.48525	-4.1566	0.87014
0.50319	-4.3635	6.4458
0.49584	-4.3522	4.1608
0.49317	-4.3809	3.3301
0.50322	-4.5234	6.4569
0.5435	4.9525	4.8971
0.53089	4.7861	1.3027
0.5332	4.7553	1.9627
0.52972	4.6729	0.97131
0.54029	4.7137	3.9821
0.53139	4.5846	1.4469
0.53437	0.36261	2.2965
0.54969	0.31972	6.6612
0.54025	0.26186	3.9708
0.53967	0.20926	3.8064
0.53045	0.15426	1.1777
0.5404	0.10477	4.0151
0.53187	0.051558	1.5816
0.54972	0	6.6711
0.5473	-0.053054	5.9801
0.54213	-0.10511	4.5082
0.54867	-0.15956	6.3713
0.52998	-3.956	1.0456
0.53603	-4.0531	2.7696
0.54591	-4.1807	5.5857
0.53407	-4.1418	2.2102
0.53163	-4.1744	1.5138
0.53063	-4.218	1.2303
0.54482	-4.3835	5.2723
0.53343	-4.3437	2.028
0.54561	-4.4957	5.4975
0.54805	-4.569	6.1953
0.58788	4.9448	4.6578
0.57166	4.7572	0.38925
0.59274	4.8796	5.9349
0.59062	4.8093	5.3785
0.59609	4.8006	6.8187
0.58554	4.6632	4.043
0.59274	0.31823	5.9351
0.59557	0.26646	6.6805
0.58115	0.20801	2.8882
0.58598	0.1573	4.1588
0.57231	0.10242	0.56143
0.58529	0.052373	3.9766
0.57981	0	2.5348
0.58665	-4.0421	4.335
0.58215	-4.0632	3.1515
0.57736	-4.0814	1.8889
0.57704	-4.1308	1.807
0.57204	-4.1462	0.49046
0.57996	-4.2554	2.5731
0.58162	-4.3197	3.0104
0.57865	-4.3494	2.23
0.57113	-4.344	0.25163
0.5722	-4.4033	0.53205
0.63776	4.9812	5.7951
0.61651	4.764	0.60537
0.62381	4.7686	2.3879
0.6142	4.6441	0.039339
0.62081	4.6425	1.6539
0.63818	4.7194	5.8995
0.61938	2.2644	1.306
0.61756	2.2065	0.86003
0.63082	2.2014	4.1005
0.63865	2.1757	6.0133
0.63256	2.1024	4.5247
0.63755	2.066	5.7435
0.62771	1.982	3.3411
0.6328	1.9454	4.5833
0.62671	1.8747	3.0972
0.62264	1.8107	2.1026
0.61981	1.751	1.4112
0.62732	1.7201	3.2465
0.63495	1.6883	5.1086
0.62343	1.6058	2.2946
0.62386	1.5551	2.4002
0.61622	1.4848	0.53287
0.61605	1.4333	0.49233
0.62033	1.3917	1.5371
0.61904	1.3374	1.2237
0.6169	1.2815	0.69865
0.61815	1.2327	1.0044
0.62557	1.1955	2.8176
0.63922	-4.0366	6.1528
0.63361	-4.0538	4.783
0.63247	-4.099	4.5024
0.61666	-4.0479	0.64208
0.63761	-4.2383	5.7588
0.63741	-4.29	5.7094
0.63133	-4.3015	4.2247
0.61568	-4.2461	0.4025
0.64042	-4.4699	6.4454
0.62104	-4.3862	1.7115
0.62716	-4.4815	3.2055
0.63004	-4.5545	3.9096
0.68784	5.0142	6.8277
0.6664	4.8062	1.9388
0.68281	4.8716	5.6808
0.6618	4.6704	0.89066
0.67372	4.7023	3.6076
0.67219	4.6394	3.2582
0.66354	2.47	1.287
0.67208	2.4497	3.2341
0.66869	2.3855	2.4617
0.67867	2.3684	4.7372
0.66586	2.2721	1.8157
0.67868	2.2632	4.7387
0.65913	2.1469	0.28102
0.67088	2.1331	2.9604
0.68393	2.1216	5.9363
0.66896	2.0233	2.5227
0.67223	1.981	3.2694
0.66771	1.9159	2.2382
0.67596	1.8872	4.1198
0.6671	1.8107	2.098
0.65946	1.7388	0.35718
0.6608	1.6911	0.66322
0.66374	1.6472	1.3327
0.67051	1.6119	2.8753
0.68805	1.6008	6.8765
0.67219	1.5117	3.2593
0.66575	1.4456	1.7909
0.66112	1.3843	0.73625
0.68377	1.3787	5.9001
0.66676	1.2927	2.0211
0.6793	1.2643	4.8799
0.67647	1.2066	4.236
0.66522	1.1349	1.6695
0.67402	1.0977	3.6756
0.68628	1.0644	6.4729
0.68363	1.0073	5.8668
0.68307	-4.0259	5.7401
0.66105	-3.9474	0.71973
0.67036	-4.055	2.8427
0.66365	-4.0659	1.3122
0.66971	-4.1549	2.6942
0.6663	-4.1855	1.9168
0.6732	-4.281	3.4894
0.67934	-4.3727	4.8888
0.67022	-4.366	2.8111
0.6867	-4.5266	6.5681
0.67313	-4.4893	3.4725
0.6754	-4.5569	3.9915
0.71702	4.9002	3.2627
0.71521	4.8359	2.8754
0.73083	4.8884	6.2153
0.71334	4.7195	2.4762
0.71661	4.6891	3.1759
0.70992	4.5937	1.7462
0.71779	2.6615	3.4271
0.71242	2.5898	2.2789
0.72003	2.5651	3.906
0.72269	2.522	4.4747
0.72103	2.4638	4.1199
0.7068	2.3638	1.0787
0.70568	2.3087	0.83825
0.72008	2.3035	3.9178
0.71417	2.2327	2.6528
0.71001	2.1681	1.7637
0.72281	2.1546	4.4999
0.72853	2.1187	5.7231
0.7035	1.9947	0.37302
0.71646	1.9794	3.1439
0.72612	1.9533	5.2081
0.72683	1.9024	5.3597
0.72546	1.846	5.0666
0.70649	1.7464	1.0113
0.7209	1.7296	4.0931
0.71165	1.6557	2.1152
0.71908	1.6207	3.7039
0.72495	1.5812	4.9574
0.7336	1.5467	6.8066
0.7019	1.4289	0.031639
0.70741	1.3887	1.2094
0.70213	1.3272	0.080683
0.72553	1.3187	5.0828
0.73229	1.2778	6.5267
0.73347	1.2265	6.7789
0.7343	1.1745	6.957
0.72945	1.1137	5.9197
0.71539	1.0402	2.9138
0.73295	1.0125	6.669
0.71147	0.93109	2.0772
0.71216	0.8802	2.2232
0.7158	0.83267	3.0033
0.73207	-4.0451	6.481
0.73058	-4.09	6.1619
0.7208	-4.0876	4.0706
0.72128	-4.1427	4.1728
0.72041	-4.1902	3.9883
0.72028	-4.2417	3.9596
0.72814	-4.341	5.6407
0.70317	-4.2432	0.30277
0.73193	-4.47	6.4491
0.72922	-4.5065	5.8713
0.70699	-4.4205	1.1184
0.70455	-4.4564	0.5969
0.70729	-4.5252	1.1838
0.74992	4.7723	0.8662
0.75103	4.728	1.0894
0.76896	4.7882	4.6968
0.74573	4.5925	0.023021
0.77336	4.7098	5.5824
0.75778	2.8	2.4467
0.75329	2.7319	1.5452
0.77043	2.7414	4.9932
0.76189	2.6588	3.274
0.77032	2.6356	4.9709
0.77738	2.6065	6.3898
0.77586	2.5483	6.0853
0.76563	2.4623	4.026
0.75027	2.3616	0.93622
0.77726	2.3934	6.3667
0.77133	2.3223	5.1739
0.77335	2.2755	5.5795
0.75089	2.158	1.062
0.7558	2.1204	2.0501
0.74785	2.0469	0.45058
0.76569	2.0434	4.0395
0.74741	1.9434	0.36139
0.77119	1.9525	5.1446
0.75133	1.8508	1.1497
0.7781	1.8635	6.5351
0.76093	1.7703	3.0822
0.76	1.7162	2.8943
0.74884	1.6397	0.64981
0.7459	1.5822	0.056806
0.75741	1.5548	2.3727
0.75208	1.4924	1.3003
0.74944	1.4359	0.77034
0.78028	1.4416	6.9735
0.76611	1.363	4.1232
0.7532	1.2885	1.527
0.74848	1.2292	0.57593
0.76742	1.2078	4.3867
0.76779	1.1558	4.4607
0.76448	1.0985	3.7958
0.76495	1.0469	3.8901
0.74684	0.97098	0.24584
0.75971	0.93573	2.8366
0.77294	0.89914	5.4983
0.76948	0.84246	4.8011
0.75387	0.77378	1.6601
0.7547	0.72299	1.8269
0.77967	0.69356	6.8511
0.77642	-4.0377	6.1968
0.76775	-4.0452	4.4537
0.74648	-3.9842	0.17521
0.75022	-4.0555	0.92631
0.7757	-4.3525	6.0524
0.77955	-4.4274	6.8273
0.74657	-4.2912	0.19255
0.77941	-4.5333	6.7986
0.74869	-4.4059	0.61947
0.76098	-4.5303	3.0917
0.75813	-4.5651	2.5173
0.80558	4.8417	3.0602
0.81166	4.8258	4.2147
0.79588	4.6805	1.2167
0.79651	4.6327	1.336
0.82575	4.7494	6.8917
0.81285	4.6228	4.4419
0.81037	2.8804	3.97
0.82329	2.8731	6.4246
0.81739	2.7997	5.3034
0.8125	2.7305	4.3758
0.82325	2.7134	6.4176
0.82174	2.1773	6.1311
0.82237	2.1259	6.2505
0.7919	1.9959	0.461
0.82351	2.0224	6.4676
0.81033	1.9376	3.9632
0.81197	1.8891	4.2735
0.79613	1.8008	1.2653
0.80764	1.7746	3.4524
0.81512	1.7384	4.8723
0.82024	1.6963	5.8456
0.81151	1.6258	4.186
0.82559	1.6006	6.8616
0.826	1.5481	6.9408
0.80431	1.4554	2.8186
0.7964	1.3896	1.3155
0.79089	1.3289	0.26946
0.79018	1.2766	0.13344
0.79772	1.2373	1.5668
0.82176	1.2215	6.1347
0.80378	1.1428	2.7179
0.79324	1.0765	0.7155
0.80035	1.0345	2.0666
0.82628	1.0146	6.9932
0.81249	0.94514	4.3733
0.79135	0.86941	0.35739
0.80646	0.83389	3.2277
0.79766	0.77324	1.5546
0.81573	0.73805	4.9895
0.81942	0.68843	5.6903
0.8062	0.62522	3.1778
0.80812	-3.9691	3.5424
0.8127	-4.0441	4.4123
0.7969	-4.017	1.4113
0.79695	-4.0688	1.4207
0.79557	-4.216	1.159
0.82414	-4.4207	6.5873
0.7942	-4.3114	0.89852
0.80769	-4.4368	3.462
0.80587	-4.4789	3.1155
0.79334	-4.4605	0.73507
0.81763	-4.6499	5.3498
0.8603	4.8984	4.8541
0.86192	4.8549	5.1449
0.86083	4.796	4.9488
0.85642	4.7191	4.1557
0.83649	4.558	0.56851
0.85628	4.6134	4.1302
0.83517	2.8634	0.3302
0.83553	2.8135	0.39476
0.87059	2.8783	6.7069
0.83961	1.9534	1.1296
0.86511	1.9597	5.7207
0.85185	1.8775	3.3328
0.85336	1.8286	3.6046
0.86097	1.7922	4.9753
0.85599	1.7294	4.0778
0.87174	1.7079	6.9138
0.86445	1.6407	5.6003
0.86498	1.5887	5.6965
0.84909	1.5076	2.8367
0.84633	1.4508	2.3387
0.83816	1.3855	0.86908
0.83575	1.3304	0.43434
0.87034	1.3322	6.6619
0.86422	1.2699	5.5597
0.86614	1.2197	5.9056
0.8605	1.159	4.89
0.85122	1.0944	3.2202
0.85681	1.0492	4.226
0.87024	1.0123	6.6439
0.83825	0.92379	0.88576
0.8598	0.8949	4.7644
0.86907	0.85133	6.4325
0.83675	0.76845	0.61554
0.84065	0.72056	1.3175
0.87134	0.69352	6.8418
0.83931	0.61663	1.0754
0.85766	0.57761	4.3786
0.86032	-4.0031	4.8573
0.86405	-4.0734	5.5292
0.84092	-4.0158	1.3652
0.8589	-4.1543	4.6017
0.86922	-4.4171	6.4604
0.83683	-4.3037	0.62931
0.85573	-4.4533	4.032
0.8715	-4.5887	6.8702
0.85368	-4.5471	3.6621
0.85002	-4.5797	3.0034
0.83976	-4.5758	1.1567
0.90226	4.8805	4.2863
0.89211	4.7737	2.5501
0.9173	4.8552	6.8587
0.91111	4.7694	5.7993
0.91465	4.7347	6.4058
0.90375	4.6257	4.5414
0.91353	3.0286	6.2132
0.89593	2.9182	3.2033
0.88993	2.8469	2.1782
0.90087	1.9387	4.0483
0.89398	1.8719	2.8702
0.89775	1.8276	3.5156
0.90933	1.7982	5.4951
0.9015	1.7303	4.156
0.89675	1.6691	3.3445
0.90924	1.6394	5.4795
0.90131	1.5727	4.1233
0.91376	1.5413	6.2528
0.87902	1.4316	0.31301
0.91676	1.4397	6.7666
0.89046	1.3466	2.2692
0.89883	1.307	3.6993
0.87854	1.2264	0.22973
0.90524	1.211	4.7961
0.8975	1.1484	3.4724
0.90924	1.1106	5.4795
0.90298	1.0504	4.4102
0.90293	0.99783	4.4008
0.90428	0.94672	4.6311
0.89406	0.88402	2.8837
0.91314	0.84978	6.1465
0.89144	0.77774	2.4367
0.8929	0.72707	2.6853
0.91766	0.69386	6.9192
0.88589	0.61831	1.487
0.89451	0.5723	2.9612
0.91253	0.53076	6.0434
0.90289	-3.9911	4.3936
0.89096	-3.9902	2.3547
0.89636	-4.0665	3.2774
0.91727	-4.4282	6.8537
0.89009	-4.3487	2.2048
0.88635	-4.382	1.5666
0.89665	-4.4851	3.3263
0.89207	-4.5141	2.5443
0.90065	-4.6099	4.0115
0.90924	-4.7067	5.4799
0.94635	4.8752	4.1195
0.95776	4.881	5.9788
0.9228	4.6517	0.28438
0.96163	4.7941	6.6081
0.94059	4.6372	3.1823
0.95254	4.6433	5.1283
0.93908	3.0171	2.9364
0.9365	2.957	2.5165
0.93743	2.908	2.6677
0.95243	1.8993	5.1105
0.94897	1.8398	4.5468
0.92292	1.7382	0.30427
0.93451	1.7083	2.1913
0.9522	1.6879	5.0719
0.95418	1.6385	5.3951
0.94301	1.5671	3.5762
0.93457	1.5013	2.2006
0.95795	1.4858	6.0083
0.92452	1.3827	0.56453
0.9567	1.3779	5.8052
0.93624	1.2965	2.4734
0.93621	1.2446	2.4678
0.93098	1.1861	1.6176
0.96207	1.1724	6.6792
0.92346	1.0742	0.39214
0.94192	1.0435	3.3984
0.94485	0.99443	3.8755
0.94297	0.94022	3.5695
0.94017	0.88535	3.1142
0.9515	0.84331	4.959
0.93057	0.77321	1.5495
0.93307	0.72361	1.9571
0.92432	0.66562	0.53209
0.93241	0.61979	1.8495
0.93622	0.57047	2.4703
0.9555	0.52929	5.6099
0.93517	0.46622	2.2988
0.92361	-3.8372	0.41693
0.95077	-4.0027	4.8402
0.95814	-4.0868	6.0406
0.93627	-4.0454	2.4786
0.93237	-4.2867	1.843
0.94762	-4.4093	4.3262
0.95596	-4.5011	5.6845
0.96148	-4.5803	6.5832
0.95471	-4.601	5.4815
0.94164	-4.5902	3.3529
0.92842	-4.5771	1.199
0.96968	4.7683	0.74093
0.99836	4.8566	5.1994
0.99035	4.7652	3.9537
0.98012	4.6642	2.3638
0.96676	4.5495	0.28775
0.99652	4.6368	4.9128
0.99218	3.0428	4.2388
0.97801	2.9476	2.0359
0.97964	2.9007	2.2887
0.973	1.8521	1.2569
0.99725	1.8456	5.0263
1.0054	1.8075	6.2982
0.98583	1.7202	3.2516
0.96758	1.6372	0.4141
0.97927	1.6052	2.2319
0.98181	1.5574	2.6268
0.99418	1.5245	4.549
0.98602	1.4598	3.2818
0.99043	1.414	3.9675
0.97323	1.338	1.2923
1.0027	1.3255	5.8773
0.99104	1.2576	4.0618
0.96583	1.1746	0.14233
0.987	1.1481	3.4333
1.0001	1.1105	5.472
0.9675	1.0231	0.40263
0.98701	0.99159	3.4356
1.0071	0.95855	6.5624
0.97958	0.88053	2.2799
1.0054	0.85055	6.2882
0.97984	0.77715	2.3212
0.9872	0.73078	3.4643
0.97427	0.6697	1.4554
0.96701	0.61358	0.32669
1.0073	0.58586	6.5834
0.97901	0.51766	2.1915
0.97927	0.46602	2.2322
1.0021	-3.9741	5.7851
0.98256	-3.9485	2.7428
0.99335	-4.0444	4.4215
0.9776	-4.0319	1.9723
0.98745	-4.3858	3.5034
0.98009	-4.4049	2.3588
0.96594	-4.3924	0.15923
0.99007	-4.5545	3.9116
0.97961	-4.5582	2.2849
0.96787	-4.5547	0.45934
0.99934	-4.7557	5.3516
1.0476	4.8745	5.7731
1.0089	4.6435	0.019813
1.0277	4.6779	2.8111
1.0393	4.6783	4.5405
1.043	4.642	5.0851
1.0136	4.4598	0.71082
1.0344	3.0343	3.8087
1.0365	2.988	4.1169
1.045	2.9597	5.3858
1.0231	1.8628	2.1262
1.0478	1.8548	5.805
1.032	1.7746	3.4493
1.048	1.7492	5.8354
1.0528	1.7039	6.5458
1.0113	1.5856	0.37361
1.0117	1.5351	0.43926
1.0196	1.4955	1.6121
1.0294	1.4577	3.0637
1.0117	1.3816	0.44202
1.0452	1.3744	5.4174
1.0357	1.3095	4.0021
1.0122	1.2286	0.5079
1.0091	1.1738	0.045667
1.0348	1.1514	3.8645
1.0487	1.1139	5.9431
1.0541	1.0663	6.7447
1.0295	0.98934	3.0866
1.0155	0.92452	1.0042
1.0099	0.86831	0.16658
1.0388	0.84063	4.4664
1.052	0.79808	6.4236
1.0535	0.74596	6.6521
1.0109	0.66464	0.31001
1.0484	0.63632	5.8995
1.0255	0.57052	2.4856
1.0524	0.53226	6.4842
1.0449	0.47565	5.3781
1.0339	-3.9218	3.7343
1.0527	-4.0462	6.5245
1.0321	-4.0195	3.4705
1.0514	-4.1478	6.341
1.0434	-4.4326	5.1422
1.0267	-4.4136	2.6602
1.0305	-4.4821	3.2242
1.0538	-4.6369	6.6946
1.0241	-4.5579	2.2765
1.0153	-4.5702	0.96923
1.0358	-4.7147	4.0125
1.0606	4.7295	1.1398
1.0664	4.7038	1.9677
1.072	4.6764	2.762
1.0954	4.7252	6.0899
1.0956	4.6733	6.1291
1.0892	4.593	5.2103
1.0704	3.0092	2.5372
1.0605	2.9298	1.1176
1.0557	2.8654	0.43124
1.0741	1.8742	3.0579
1.0893	1.8479	5.2216
1.0799	1.7797	3.8914
1.0995	1.7586	6.6735
1.0945	1.6976	5.9645
1.0787	1.6208	3.7175
1.0579	1.5382	0.7465
1.0762	1.5127	3.3552
1.0627	1.4422	1.4307
1.0981	1.4371	6.4798
1.064	1.3409	1.6195
1.0811	1.31	4.0503
1.0963	1.2753	6.2263
1.0611	1.1829	1.2055
1.0898	1.1621	5.301
1.0708	1.09	2.5935
1.0637	1.0311	1.5753
1.0703	0.98562	2.5115
1.0907	0.95156	5.4218
1.0684	0.88037	2.2518
1.0768	0.83506	3.4418
1.0564	0.76807	0.54212
1.0738	0.72864	3.0141
1.0618	0.66904	1.3067
1.0984	0.63884	6.516
1.0553	0.56265	0.38012
1.06	0.51376	1.0462
1.0531	0.45937	0.061472
1.0719	-3.8966	2.7474
1.0855	-3.9985	4.6794
1.0775	-4.0212	3.538
1.0597	-4.3147	1.0128
1.0614	-4.3729	1.2505
1.0702	-4.4611	2.5073
1.0989	-4.6339	6.5943
1.0698	-4.5629	2.4411
1.0904	-4.7038	5.3846
1.0842	-4.7297	4.5022
1.1106	4.7542	1.9271
1.1362	4.8111	5.4348
1.1177	4.6805	2.8967
1.1419	4.7289	6.2124
1.128	4.6189	4.3129
1.1286	4.5689	4.3966
1.1146	3.0082	2.4824
1.1288	2.9939	4.4224
1.134	2.9549	5.1308
1.1241	1.9353	3.7771
1.1044	1.8499	1.0776
1.1185	1.8216	3.0103
1.1098	1.7557	1.8191
1.1294	1.7343	4.5065
1.1039	1.6437	1.012
1.1326	1.6337	4.9392
1.1176	1.5601	2.8903
1.1345	1.5308	5.1952
1.144	1.4905	6.5017
1.1023	1.3848	0.79108
1.1461	1.3865	6.7823
1.0996	1.2791	0.41916
1.1158	1.2461	2.6482
1.0996	1.1768	0.42133
1.1345	1.1614	5.2064
1.1011	1.0759	0.63217
1.1231	1.0452	3.6385
1.1457	1.0129	6.7352
1.0968	0.91863	0.043389
1.1251	0.88998	3.9144
1.1121	0.82792	2.131
1.1136	0.77724	2.3389
1.126	0.73352	4.0391
1.1017	0.6664	0.7087
1.0989	0.6136	0.33219
1.1324	0.57959	4.9089
1.1415	0.53113	6.1509
1.1406	0.47765	6.0325
1.1161	-3.8429	2.6783
1.1323	-3.9514	4.8953
1.1025	-3.8989	0.82682
1.1338	-4.0621	5.0974
1.1251	-4.45	3.9162
1.1456	-4.5844	6.722
1.1194	-4.5315	3.1331
1.1371	-4.6561	5.5559
1.1352	-4.701	5.2911
1.1342	-4.7499	5.1647
1.1513	4.7389	1.4383
1.1421	4.6498	0.22544
1.151	4.6347	1.3987
1.1437	4.554	0.43496
1.1833	4.6587	5.6429
1.1723	4.5631	4.2013
1.1876	3.0286	6.2133
1.1434	2.8647	0.39914
1.1423	2.8109	0.25365
1.1592	1.919	2.4855
1.1464	1.8465	0.80034
1.161	1.818	2.7118
1.1665	1.7745	3.4397
1.1842	1.7484	5.7629
1.1788	1.6878	5.0636
1.1499	1.5949	1.2598
1.1892	1.5962	6.4251
1.1818	1.5334	5.4526
1.1591	1.4521	2.4718
1.1428	1.3806	0.32811
1.1827	1.3758	5.5674
1.179	1.3188	5.0856
1.1876	1.2753	6.2184
1.1581	1.1917	2.3366
1.1906	1.1719	6.6133
1.1826	1.1112	5.5615
1.1606	1.0385	2.661
1.1899	1.0115	6.5188
1.1497	0.92593	1.2347
1.1489	0.87387	1.1275
1.1452	0.8198	0.63776
1.1878	0.79714	6.2386
1.1616	0.7276	2.7966
1.1768	0.68445	4.792
1.1483	0.61654	1.052
1.1644	0.57308	3.1696
1.1433	0.51154	0.39218
1.162	-3.8473	2.8526
1.1876	-3.9849	6.2093
1.1818	-4.0184	5.4482
1.1897	-4.0985	6.487
1.1817	-4.494	5.4393
1.1876	-4.5695	6.2127
1.1488	-4.4716	1.1091
1.1859	-4.6692	5.9939
1.172	-4.6668	4.163
1.162	-4.6789	2.8448
1.1774	-4.7936	4.8702
1.2379	4.8534	6.8029
1.2196	4.7292	4.4864
1.2334	4.7294	6.2308
1.2141	4.603	3.7834
1.2027	4.5082	2.3462
1.1865	4.3961	0.28684
1.2295	2.9663	5.7308
1.1952	2.8323	1.397
1.2345	2.872	6.3664
1.2014	2.7433	2.1754
1.2223	2.0539	4.8308
1.205	1.9729	2.6375
1.1981	1.91	1.7646
1.2336	1.9134	6.262
1.2209	1.8411	4.65
1.2067	1.7676	2.8486
1.2133	1.725	3.6798
1.2157	1.676	3.986
1.2281	1.6403	5.5622
1.2013	1.5527	2.1626
1.1913	1.4884	0.89747
1.1916	1.4375	0.93769
1.2193	1.4184	4.4499
1.2306	1.3785	5.8761
1.1942	1.2863	1.2688
1.1896	1.23	0.67786
1.1941	1.1832	1.2464
1.2133	1.15	3.6814
1.2351	1.1174	6.4423
1.1942	1.029	1.2599
1.2136	0.99346	3.725
1.2312	0.9548	5.95
1.2206	0.89401	4.6103
1.1888	0.81951	0.58585
1.1964	0.77321	1.5492
1.2339	0.74424	6.29
1.2033	0.67394	2.4138
1.2096	0.62539	3.2207
1.2383	0.58686	6.8505
1.2	-3.8258	1.9998
1.2148	-3.9252	3.8689
1.1883	-3.8909	0.51619
1.1941	-3.9615	1.2563
1.2234	-4.4802	4.9634
1.2006	-4.4484	2.0743
1.2217	-4.5793	4.7499
1.2104	-4.5891	3.3183
1.2021	-4.6094	2.2648
1.2327	-4.78	6.146
1.2339	-4.8377	6.2944
1.2412	4.6924	1.6007
1.2496	4.6725	2.6355
1.2685	4.6901	4.9327
1.2486	4.5648	2.5056
1.2375	4.473	1.1566
1.2563	4.4888	3.4536
1.2301	2.8107	0.24646
1.267	2.8424	4.7516
1.2793	2.817	6.2629
1.2679	2.7391	4.867
1.2832	2.7188	6.7317
1.2467	2.5898	2.2805
1.2803	2.2339	6.3741
1.2834	2.1861	6.7628
1.2394	2.0596	1.3792
1.2369	2.0041	1.0818
1.2311	1.9435	0.36775
1.2677	1.9487	4.8414
1.2705	1.9002	5.1821
1.2674	1.8429	4.8073
1.2576	1.7764	3.603
1.2645	1.7337	4.4532
1.2711	1.6898	5.2542
1.2322	1.587	0.50517
1.2495	1.5573	2.6148
1.2334	1.486	0.65106
1.2327	1.434	0.56824
1.2406	1.3916	1.5244
1.2383	1.3375	1.2459
1.2575	1.306	3.5911
1.2742	1.2705	5.6349
1.2674	1.211	4.7988
1.2438	1.1368	1.9183
1.2316	1.0745	0.43418
1.2739	1.0585	5.5941
1.2557	0.99116	3.3689
1.2532	0.93713	3.0638
1.2762	0.90137	5.8838
1.2645	0.84051	4.4442
1.2506	0.77936	2.7538
1.2501	0.72711	2.6936
1.2577	0.67928	3.6214
1.2485	0.62244	2.4968
1.2785	-3.9307	6.1649
1.2433	-3.874	1.86
1.2421	-3.9218	1.71
1.2444	-4.3943	1.9906
1.2765	-4.5609	5.9185
1.2607	-4.5568	3.9878
1.2724	-4.652	5.4189
1.2337	-4.5618	0.69247
1.2651	-4.7302	4.5189
1.2453	-4.708	2.1035
1.3096	4.7804	4.4432
1.2734	4.5972	0.17408
1.3006	4.6431	3.3787
1.3293	4.6923	6.7671
1.3103	4.5727	4.5271
1.2903	4.4511	2.1643
1.2781	2.7173	0.73207
1.2858	2.6821	1.6409
1.2731	2.6045	0.1421
1.2906	2.5884	2.2006
1.2734	2.5029	0.17434
1.304	2.5107	3.7788
1.3273	2.5023	6.5269
1.2995	2.3977	3.2457
1.3112	2.3667	4.6266
1.3194	2.3288	5.6037
1.2831	2.2132	1.3225
1.2886	2.171	1.9669
1.2944	2.1288	2.6494
1.2962	2.0797	2.8594
1.2834	2.0077	1.3528
1.2926	1.9703	2.4389
1.3066	1.9392	4.0892
1.3151	1.8991	5.097
1.3263	1.862	6.4104
1.3183	1.7979	5.4695
1.3282	1.7582	6.6379
1.2986	1.6668	3.1416
1.3268	1.6498	6.4688
1.2974	1.5613	3.0062
1.2901	1.5007	2.1403
1.318	1.4804	5.4381
1.2823	1.3887	1.2179
1.2889	1.3442	1.9969
1.2752	1.2788	0.38142
1.2897	1.2416	2.0933
1.3218	1.2195	5.8855
1.311	1.1569	4.6023
1.3309	1.1211	6.9594
1.2929	1.0372	2.4696
1.316	1.003	5.2012
1.3174	0.9512	5.3627
1.2826	0.87465	1.2622
1.2937	0.83027	2.5616
1.3165	0.79213	5.2581
1.3104	0.7359	4.5397
1.3207	-3.8674	5.7558
1.3303	-3.9489	6.8892
1.2865	-3.8705	1.7222
1.2832	-3.912	1.3334
1.2805	-4.4175	1.016
1.2763	-4.4541	0.51655
1.3167	-4.6477	5.2749
1.3266	-4.736	6.4462
1.3082	-4.7227	4.2759
1.3263	-4.8411	6.4064
1.3752	4.8524	6.7707
1.3619	4.7527	5.2538
1.3512	4.6629	4.0314
1.3583	4.6349	4.8493
1.3363	4.5081	2.3412
1.332	4.4417	1.8447
1.3706	2.7103	6.2435
1.3328	2.5839	1.9359
1.34	2.5461	2.7651
1.3453	2.5039	3.3662
1.3753	2.5065	6.7885
1.3482	2.4048	3.7
1.3355	2.3303	2.2492
1.368	2.3341	5.9573
1.3524	2.2549	4.1733
1.3659	2.2245	5.712
1.3248	2.1061	1.0244
1.367	2.1203	5.8388
1.3421	2.0296	2.9994
1.3639	2.0097	5.4892
1.3655	1.959	5.6642
1.3554	1.892	4.5113
1.3571	1.8418	4.7145
1.3307	1.7544	1.6997
1.3412	1.7161	2.8922
1.3348	1.6562	2.1655
1.3236	1.591	0.88816
1.368	1.5913	5.9523
1.3268	1.492	1.2597
1.377	1.495	6.9763
1.3496	1.4129	3.8506
1.3494	1.3604	3.8302
1.3698	1.3279	6.1625
1.3697	1.2747	6.1448
1.3405	1.1955	2.8219
1.3365	1.1401	2.3581
1.3597	1.1072	5.0042
1.3401	1.0392	2.7671
1.3394	0.98677	2.6892
1.3754	0.95996	6.7934
1.3202	0.87025	0.50127
1.3425	0.83288	3.0416
1.3399	-3.7927	2.7465
1.3255	-3.8033	1.1044
1.3262	-3.8567	1.1819
1.3575	-4.0006	4.7603
1.347	-4.4917	3.555
1.3228	-4.4625	0.80122
1.3333	-4.5497	2.0014
1.3294	-4.5877	1.5486
1.3606	-4.7483	5.111
1.352	-4.7706	4.1274
1.3662	-4.8736	5.7447
1.3858	4.6803	2.8891
1.3786	4.6042	2.0928
1.4225	4.6972	6.9288
1.3823	4.5126	2.4958
1.4061	4.5375	5.12
1.3631	4.3477	0.37976
1.3973	2.5168	4.1523
1.4095	2.4859	5.5003
1.4207	2.4524	6.7399
1.4021	2.3677	4.6882
1.4096	2.3274	5.5103
1.3705	2.2114	1.1967
1.3706	2.1601	1.2089
1.4074	2.1653	5.2682
1.3931	2.0911	3.6944
1.3849	2.0268	2.7869
1.385	1.9749	2.7972
1.3625	1.8916	0.3093
1.4018	1.8936	4.6453
1.37	1.7992	1.1369
1.3805	1.7612	2.295
1.3991	1.7326	4.3576
1.3853	1.6634	2.8276
1.3617	1.584	0.22484
1.3784	1.5517	2.0654
1.3662	1.4868	0.72763
1.4018	1.4728	4.6469
1.3938	1.4121	3.7646
1.3952	1.3613	3.9261
1.3856	1.2998	2.8607
1.383	1.2455	2.5729
1.4065	1.2139	5.1708
1.3883	1.1461	3.1553
1.3808	1.0881	2.3362
1.3947	1.0467	3.8642
1.392	0.99242	3.5643
1.3994	-3.8333	4.3813
1.3931	-3.8684	3.6892
1.3672	-3.8478	0.83449
1.3854	-4.4709	2.8428
1.3845	-4.52	2.7444
1.4035	-4.6346	4.8379
1.4013	-4.6798	4.5919
1.3862	-4.6814	2.927
1.3731	-4.6889	1.489
1.3861	-4.7852	2.9192
1.457	4.7667	5.7124
1.4387	4.6548	3.7657
1.4122	4.5175	0.92651
1.4183	4.4854	1.5761
1.4534	4.5439	5.3372
1.4274	4.4105	2.5509
1.4236	2.2254	2.1521
1.4595	2.2284	5.985
1.4439	2.152	4.3123
1.4371	2.0896	3.5864
1.4198	2.013	1.7463
1.4534	2.0077	5.334
1.4409	1.9381	3.9991
1.4144	1.8509	1.1609
1.4557	1.8521	5.5733
1.4593	1.8037	5.9651
1.4229	1.707	2.0765
1.4498	1.6865	4.9478
1.4401	1.6229	3.9155
1.4394	1.5698	3.8359
1.4687	1.5483	6.962
1.4264	1.4519	2.4477
1.4538	1.4269	5.3735
1.4478	1.3684	4.738
1.4422	1.3107	4.1379
1.4221	-3.7222	1.9897
1.4134	-3.7508	1.0577
1.462	-3.9329	6.2533
1.4236	-3.8814	2.1516
1.4324	-4.478	3.0855
1.4338	-4.5347	3.2405
1.4613	-4.6746	6.1729
1.4365	-4.6477	3.5312
1.4274	-4.6701	2.5576
1.4497	-4.7955	4.9315
1.4157	-4.7348	1.3062
1.4825	4.7034	3.6451
1.4482	4.5435	0.087018
1.4653	4.5455	1.8617
1.4943	4.5828	4.8683
1.4599	4.4256	1.2945
1.4974	4.4865	5.1804
1.5052	4.4568	5.9892
1.4633	-3.714	1.6548
1.4764	-3.7993	3.012
1.5088	-3.9358	6.3698
1.4535	-3.8427	0.63569
1.5088	-4.5741	6.3708
1.4667	-4.498	2.0016
1.5117	-4.6893	6.6661
1.5042	-4.7192	5.8939
1.4652	-4.6485	1.8494
1.4837	-4.7594	3.765
1.451	-4.7057	0.37837
1.5388	4.6856	4.7829
1.5173	4.5682	2.621
1.5528	4.622	6.1926
1.5042	4.4261	1.3094
1.5529	4.5161	6.2055
1.5449	4.44	5.4004
1.5381	-3.7888	4.7107
1.5291	-3.8191	3.8114
1.5046	-3.8093	1.3442
1.5237	-4.5353	3.2625
1.5367	-4.6266	4.5689
1.53	-4.6588	3.8986
1.5531	-4.7822	6.2188
1.5266	-4.7531	3.5604
1.4949	-4.7053	0.36591
1.5838	4.6849	4.7584
1.6039	4.6909	6.7201
1.5737	4.5505	3.7751
1.5784	4.5115	4.2298
1.5871	4.4837	5.0834
1.5465	4.3175	1.1126
1.552	-3.6622	1.6478
1.5636	-3.7416	2.782
1.5449	-3.7484	0.96314
1.5775	-3.8797	4.1399
1.5756	-4.5559	3.958
1.5413	-4.508	0.60772
1.5581	-4.6089	2.2492
1.5432	-4.616	0.78983
1.5988	-4.8357	6.2299
1.5709	-4.8035	3.5037
1.6234	4.6688	4.2263
1.6004	4.5509	2.0405
1.5877	4.4632	0.82676
1.6268	4.5208	4.548
1.6047	4.4076	2.4511
1.59	4.3158	1.0537
1.5947	4.2769	1.4952
1.5845	-3.6353	0.53207
1.6302	-3.7928	4.8732
1.6147	-3.8088	3.397
1.5813	-3.7812	0.22561
1.6363	-4.6	5.4471
1.5886	-4.5173	0.91891
1.608	-4.6243	2.7571
1.6041	-4.6649	2.3861
1.6101	-4.7345	2.9597
1.6522	-4.9118	6.9633
1.636	-4.9164	5.4207
1.6964	4.6934	6.8018
1.6663	4.5578	4.0227
1.678	4.5369	5.098
1.6274	4.3489	0.42109
1.6269	4.2965	0.37894
1.6253	4.2412	0.2291
1.6316	-3.5908	0.81244
1.6977	-3.7897	6.9264
1.6902	-3.8259	6.2254
1.6879	-3.8738	6.0132
1.6943	-4.6343	6.6073
1.6355	-4.5249	1.1727
1.6879	-4.7229	6.0134
1.6376	-4.6336	1.365
1.6959	-4.8521	6.7607
1.6582	-4.7961	3.2679
1.6799	-4.912	5.2811
1.6971	4.5719	2.7416
1.7367	4.6253	6.3034
1.685	4.436	1.6483
1.7352	4.5149	6.1636
1.7117	4.4015	4.0537
1.6785	4.2647	1.0621
1.6768	4.2091	0.91026
1.6832	-3.6068	1.4845
1.7316	-3.7635	5.8424
1.7102	-3.7695	3.9196
1.705	-3.8101	3.4496
1.6732	-4.4562	0.59032
1.667	-4.4907	0.031211
1.6854	-4.5917	1.6817
1.6959	-4.6724	2.6317
1.7304	-4.8203	5.7315
1.7112	-4.8193	4.0095
1.6899	-4.811	2.0899
1.7144	4.4489	0.34376
1.725	4.4248	1.2657
1.7742	4.4982	5.5853
1.7295	4.3332	1.6627
1.762	4.3621	4.5113
1.777	4.3463	5.8301
1.7381	-3.5771	2.4169
1.7569	-3.6682	4.0641
1.7238	-3.6506	1.1636
1.7819	-3.8267	6.2582
1.782	-4.6244	6.2712
1.7605	-4.621	4.382
1.7391	-4.6168	2.5084
1.7459	-4.6867	3.0977
1.7136	-4.6513	0.27297
1.7135	-4.702	0.26015
1.7415	-4.8309	2.7188
1.8339	4.6401	6.8023
1.8099	4.5265	4.7436
1.7659	4.3651	0.98142
1.7807	4.3501	2.2541
1.7555	4.2373	0.092685
1.8283	4.3599	6.3195
1.8249	-3.6618	6.0252
1.8202	-3.7054	5.6282
1.7632	-3.6407	0.75592
1.8046	-3.7787	4.2951
1.7857	-4.57	2.6788
1.755	-4.5425	0.054619
1.8338	-4.7998	6.7931
1.7871	-4.7294	2.7974
1.762	-4.7143	0.65336
1.8157	-4.9107	5.2406
1.8067	4.4083	0.70158
1.8299	4.4131	2.6418
1.8564	4.4244	4.8543
1.8431	4.3404	3.7449
1.8812	4.3767	6.9204
1.844	4.2377	3.8132
1.8399	-3.5497	3.4737
1.8171	-3.5573	1.5709
1.868	-3.7099	5.816
1.8011	-3.6282	0.23665
1.8299	-4.5689	2.6443
1.8431	-4.6541	3.7437
1.8485	-4.7202	4.1918
1.8156	-4.6877	1.4489
1.8088	-4.7214	0.88045
1.8263	-4.8189	2.339
1.8937	4.5106	4.2003
1.8951	4.4615	4.3154
1.8865	4.3889	3.6119
1.8573	4.2697	1.2383
1.9255	4.373	6.787
1.8931	4.2471	4.1542
1.9007	-3.5798	4.7718
1.9232	-3.6754	6.604
1.888	-3.6604	3.737
1.8846	-3.7061	3.4643
1.885	-4.5943	3.491
1.8504	-4.5612	0.6723
1.9029	-4.7435	4.9543
1.8446	-4.6492	0.20472
1.9131	-4.8749	5.7847
1.853	-4.7728	0.88323
1.9678	4.5248	6.5049
1.9354	4.398	3.9299
1.8923	4.249	0.50718
1.9425	4.3091	4.4969
1.9631	4.3017	6.1372
1.9309	4.179	3.5773
1.9172	-3.4751	2.4882
1.9128	-3.5188	2.1367
1.957	-3.6531	5.6532
1.9679	-3.7267	6.5199
1.9439	-4.6277	4.6058
1.9561	-4.7097	5.5775
1.9588	-4.7691	5.7891
1.9726	-4.8562	6.8925
1.9288	-4.8004	3.403
1.8871	-4.7478	0.092906
1.9998	4.4939	5.4352
1.9395	4.3073	0.75439
1.9545	4.2889	1.9217
1.9756	4.283	3.5598
2.0088	4.3017	6.1358
2.0147	4.261	6.5935
1.9463	4.0651	1.2823
2.0001	-3.5429	5.4624
1.9505	-3.5066	1.6102
1.9781	-3.6086	3.7557
1.966	-3.6383	2.8083
1.9754	-4.5959	3.5455
2.0108	-4.7313	6.2921
1.9424	-4.6217	0.97597
1.931	-4.6456	0.089589
1.973	-4.7989	3.3565
2.0088	-4.9391	6.1389
1.9906	4.3224	1.2839
1.9862	4.2616	0.95137
2.0473	4.3397	5.5955
1.9933	4.1738	1.492
1.9999	4.1359	1.9959
2.0461	4.1784	5.5012
2.0427	-3.485	5.2414
2.0639	-3.5746	6.855
2.0373	-3.5812	4.8349
1.9887	-3.5472	1.1407
1.9898	-4.5264	1.2241
1.9892	-4.5766	1.1811
2.0268	-4.7154	4.0378
2.0394	-4.7975	4.9948
2.0621	-4.9042	6.7219
2.0283	-4.8762	4.1521
2.0191	-4.9064	3.4541
2.0608	4.3775	3.2128
2.0654	4.3352	3.5592
2.0617	4.2752	3.2798
2.0969	4.2951	5.8971
2.0828	4.2137	4.8552
2.0305	4.0565	0.96185
2.0551	4.0537	2.7919
2.0753	-3.4637	4.2931
2.102	-3.5615	6.2792
2.0553	-3.5344	2.8101
2.0285	-3.5395	0.81355
2.0965	-4.6656	5.8736
2.0899	-4.7036	5.378
2.0436	-4.6511	1.9345
2.0957	-4.8227	5.8088
2.0466	-4.7615	2.1616
2.0753	-4.8807	4.2939
2.0977	-4.9865	5.9612
2.1524	4.4216	6.6191
2.1022	4.2665	2.9712
2.1327	4.2756	5.1892
2.07	4.0987	0.62835
2.1299	4.1645	4.9825
2.1197	4.0922	4.2447
2.1119	-3.3975	3.6724
2.0714	-3.3837	0.73031
2.0851	-3.4577	1.7241
2.1325	-3.5891	5.1745
2.0729	-4.5148	0.83414
2.1205	-4.671	4.3008
2.0701	-4.6112	0.63277
2.0999	-4.7295	2.7994
2.1519	-4.8998	6.5818
2.1518	-4.953	6.5795
2.1448	-4.9899	6.0682
2.1574	4.3397	3.7181
2.1519	4.2763	3.3217
2.1303	4.1819	1.7861
2.1559	4.1798	3.607
2.1227	4.064	1.2417
2.1124	3.993	0.50517
2.1175	3.9514	0.8702
2.1286	-3.3015	1.6612
2.1652	-3.4108	4.2716
2.1386	-3.4206	2.3721
2.1412	-3.4767	2.5604
2.1162	-3.4873	0.77621
2.1431	-4.5705	2.6967
2.1769	-4.6953	5.102
2.1272	-4.6397	1.5625
2.1498	-4.741	3.1716
2.1499	-4.7933	3.1784
2.1676	-4.8853	4.4381
2.1733	-4.951	4.8497
2.205	4.2924	3.8966
2.1892	4.2097	2.7979
2.189	4.1574	2.7861
2.1676	4.0652	1.2876
2.2355	4.1395	6.0281
2.2291	4.0748	5.5825
2.2352	-3.396	6.0053
2.2006	-3.3958	3.5933
2.2118	-3.4656	4.3771
2.1923	-3.487	3.0128
2.1651	-4.5746	1.1144
2.2024	-4.7057	3.7205
2.1851	-4.7206	2.5104
2.1534	-4.7032	0.29897
2.197	-4.8507	3.3447
2.1904	-4.888	2.8807
2.198	4.1932	0.34282
2.243	4.2269	3.4204
2.2747	4.2338	5.5923
2.2723	4.1763	5.4234
2.2662	4.1124	5.0075
2.2636	4.055	4.828
2.2886	4.0466	6.538
2.2071	-3.235	0.96888
2.2675	-3.3763	5.0997
2.2159	-3.351	1.5677
2.2014	-3.3803	0.57807
2.2942	-4.7505	6.9262
2.2305	-4.6703	2.5635
2.2076	-4.6739	1.0015
2.2268	-4.7662	2.3115
2.2165	-4.7957	1.606
2.2382	-4.8948	3.0942
2.3386	4.3206	6.8212
2.2543	4.1135	1.1712
2.2755	4.1002	2.5897
2.3218	4.1308	5.699
2.318	4.0712	5.4451
2.2547	3.9084	1.1946
2.2951	3.9261	3.904
2.292	-3.2412	3.6965
2.2502	-3.2335	0.89516
2.3024	-3.3611	4.3991
2.2831	-3.385	3.1045
2.3037	-3.4679	4.481
2.2736	-4.6155	2.4657
2.2705	-4.661	2.2587
2.331	-4.8383	6.3155
2.3147	-4.8573	5.2228
2.2855	-4.8481	3.2619
2.2864	-4.9022	3.3239
2.3261	4.1628	2.9838
2.3575	4.1664	5.0534
2.3845	4.1607	6.8247
2.3866	4.1109	6.9621
2.3654	4.0216	5.5737
2.2848	3.8334	0.26899
2.3074	3.8197	1.7544
2.2977	-3.1868	1.1183
2.3342	-3.2897	3.5206
2.3432	-3.3548	4.1091
2.3816	-3.4631	6.6389
2.3319	-4.6428	3.3681
2.32	-4.6709	2.5833
2.3752	-4.8353	6.2159
2.3622	-4.8616	5.3584
2.3755	-4.9421	6.233
2.3049	-4.8467	1.5884
2.3454	4.1183	1.3476
2.4091	4.1772	5.4535
2.4166	4.1371	5.938
2.3512	3.9736	1.7175
2.4279	4.0499	6.6687
2.3339	3.8419	0.60298
2.3869	3.8768	4.0234
2.3575	-3.1564	2.1266
2.4053	-3.2732	5.213
2.4127	-3.3361	5.6852
2.3656	-3.323	2.6491
2.4163	-4.72	5.9181
2.414	-4.7686	5.7738
2.3685	-4.7306	2.8342
2.4048	-4.8559	5.1783
2.4128	-4.9251	5.6965
2.4261	-5.0055	6.5539
2.3697	4.0328	0.080031
2.4136	4.0554	2.8583
2.4477	4.0601	5.021
2.4584	4.0249	5.7009
2.3809	3.8467	0.78912
2.4456	3.8985	4.8858
2.4244	3.8126	3.5484
2.3853	-3.083	1.0687
2.4657	-3.24	6.158
2.4099	-3.2187	2.6294
2.4627	-3.3422	5.9701
2.4604	-3.3921	5.8236
2.3782	-4.5595	0.61856
2.4459	-4.742	4.9068
2.4473	-4.7976	4.9987
2.4029	-4.7623	2.1863
2.4543	-4.9169	5.4379
2.4015	-4.8628	2.0924
2.4714	4.0771	3.6736
2.4506	3.991	2.3842
2.5093	4.0335	6.0347
2.4934	3.9552	5.0451
2.4126	3.7759	0.017308
2.4917	3.8472	4.9406
2.4656	3.7546	3.3144
2.4834	-3.0989	4.4222
2.4647	-3.1277	3.2573
2.433	-3.139	1.2904
2.5195	-3.3039	6.6684
2.5241	-3.3632	6.9507
2.4153	-4.5465	0.18702
2.422	-4.6103	0.60292
2.4992	-4.8101	5.4028
2.4932	-4.8514	5.0332
2.4811	-4.8802	4.2762
2.4935	-4.9573	5.0474
2.5252	4.0916	4.2201
2.5037	4.0046	2.9034
2.4963	3.941	2.4553
2.4938	3.8852	2.3017
2.4786	3.8101	1.3733
2.5064	3.8006	3.0666
2.4903	3.7245	2.0851
2.5562	3.77	6.1118
2.5118	-3.0784	3.3991
2.5017	-3.118	2.7805
2.5691	-3.2554	6.9016
2.4907	-3.2077	2.1084
2.5527	-4.7194	5.8985
2.5481	-4.7638	5.6178
2.5393	-4.8001	5.0786
2.4683	-4.7171	0.74279
2.5344	-4.8961	4.7803
2.5509	-4.981	5.7874
2.5093	3.9433	0.56099
2.6041	4.0389	6.2431
2.611	3.9964	6.6594
2.6047	3.9336	6.2812
2.5562	3.8082	3.3704
2.518	3.6999	1.0808
2.5544	3.7012	3.2627
2.5501	-3.0184	3.0033
2.5537	-3.0749	3.2229
2.5052	-3.0676	0.31071
2.5468	-3.1705	2.8084
2.6028	-4.7275	6.1685
2.5423	-4.6696	2.5405
2.5157	-4.6719	0.93911
2.583	-4.8497	4.9786
2.5881	-4.9122	5.2881
2.5297	-4.8529	1.7832
2.5823	3.9361	2.2656
2.6172	3.9368	4.3243
2.5808	3.8304	2.1796
2.6245	3.8426	4.7574
2.567	3.7069	1.3661
2.5895	3.6875	2.6937
2.5991	3.6489	3.2558
2.5504	-2.9157	0.38799
2.5662	-2.9852	1.3185
2.5576	-3.0264	0.80767
2.6472	-3.1856	6.0923
2.5488	-3.1183	0.29304
2.5983	-4.638	3.2089
2.6324	-4.7516	5.2189
2.6605	-4.8558	6.8798
2.5562	-4.7166	0.72686
2.6165	-4.8804	4.2846
2.5531	-4.8133	0.54268
2.5979	3.8415	0.58819
2.6012	3.7952	0.78173
2.6	3.7422	0.71396
2.7024	3.8363	6.6481
2.6673	3.7339	4.6132
2.6768	3.6943	5.1624
2.7053	3.6804	6.8157
2.6239	-2.8971	2.0965
2.7027	-3.0374	6.6639
2.6677	-3.0506	4.6347
2.592	-3.0151	0.24638
2.6453	-3.1294	3.3389
2.6969	-4.7325	6.3308
2.6487	-4.7001	3.5353
2.6497	-4.7541	3.5925
2.6317	-4.7736	2.5477
2.6772	-4.909	5.1885
2.589	-4.7983	0.073509
2.6741	3.8365	2.4217
2.6334	3.7271	0.10509
2.648	3.6964	0.93487
2.7372	3.7678	6.0183
2.6432	3.5872	0.66408
2.7349	3.6587	5.892
2.6402	3.4808	0.49417
2.7214	-2.9019	5.1223
2.6522	-2.8795	1.1764
2.6521	-2.9308	1.168
2.7395	-3.0806	6.1543
2.7083	-3.0979	4.3713
2.6778	-4.6206	2.6349
2.6704	-4.6596	2.2127
2.6918	-4.7492	3.4346
2.6575	-4.7401	1.4787
2.6326	-4.7468	0.059353
2.6463	-4.8227	0.83628
2.7278	3.8493	2.9333
2.7751	3.8633	5.5888
2.6758	3.674	0.020445
2.7439	3.7152	3.8405
2.7825	3.7144	6.0042
2.7986	3.6825	6.9057
2.7353	3.547	3.3576
2.7995	3.5768	6.9533
2.7261	-2.8073	2.8394
2.7838	-2.9198	6.0768
2.7664	-2.9543	5.1018
2.783	-3.0251	6.0326
2.7546	-3.0467	4.4367
2.7031	-4.5878	1.5513
2.6975	-4.6298	1.2387
2.728	-4.734	2.946
2.7076	-4.7503	1.8036
2.7704	-4.9133	5.3251
2.7174	-4.8712	2.3551
2.8222	3.8655	5.6789
2.7528	3.7188	1.8495
2.7263	3.6317	0.3836
2.7823	3.6542	3.4774
2.7949	3.6183	4.1726
2.7638	3.5261	2.4537
2.7863	3.5027	3.6984
2.7333	3.3847	0.77081
2.7986	-2.783	4.3755
2.7382	-2.7743	1.0427
2.7997	-2.8891	4.4346
2.8404	-2.9844	6.6819
2.8151	-3.0107	5.2872
2.7599	-4.6086	2.2406
2.8156	-4.7545	5.3123
2.8036	-4.7868	4.6496
2.8298	-4.8846	6.0941
2.8331	-4.9435	6.277
2.8229	-4.9787	5.7164
2.8215	3.751	3.1678
2.8118	3.6862	2.6402
2.8629	3.7003	5.4121
2.8167	3.5887	2.9085
2.8116	3.5302	2.6311
2.8032	3.4679	2.174
2.8748	3.5034	6.0626
2.7744	3.3299	0.61214
2.7877	-2.6766	1.3324
2.7875	-2.7279	1.3217
2.7795	-2.7714	0.88584
2.8678	-2.9124	5.682
2.7889	-2.8837	1.3961
2.8015	-4.6038	2.0803
2.817	-4.6813	2.9229
2.8571	-4.8007	5.0992
2.8764	-4.8862	6.1469
2.8885	-4.9602	6.806
2.8397	-4.9287	4.1525
2.8479	3.6752	2.1829
2.8493	3.6253	2.2606
2.814	3.5291	0.37119
2.8179	3.4828	0.58162
2.9274	3.5649	6.4321
2.8278	3.3922	1.1086
2.8343	3.3485	1.4562
2.8726	3.3415	3.5022
2.8861	-2.6753	4.2258
2.8885	-2.7301	4.3567
2.8663	-2.7612	3.1705
2.8076	-2.7557	0.031367
2.8588	-2.8579	2.7687
2.8759	-4.6523	3.6833
2.9377	-4.8056	6.9834
2.8806	-4.7645	3.9308
2.9313	-4.9017	6.6417
2.862	-4.8378	2.9384
2.8792	-4.9192	3.8552
2.9422	3.6858	4.8035
2.9535	3.6471	5.3973
2.8655	3.4872	0.76945
2.9655	3.5558	6.0311
2.9126	3.4403	3.2483
2.9391	3.419	4.644
2.9505	3.3794	5.2393
2.878	3.2449	1.4269
2.9646	-2.6528	5.9829
2.8849	-2.6331	1.7878
2.8794	-2.6797	1.5033
2.9772	-2.8239	6.6441
2.922	-2.8238	3.7404
2.9654	-4.7232	6.0245
2.9684	-4.7811	6.1836
2.8551	-4.6497	0.22048
2.951	-4.8587	5.2679
2.8758	-4.7864	1.3123
2.9668	-4.991	6.1001
3.0186	3.6711	6.4188
3.0191	3.6185	6.4466
2.9581	3.4932	3.2858
2.9466	3.4276	2.685
3.0089	3.4471	5.9152
2.9098	3.2823	0.78161
2.9592	3.2858	3.3386
2.9154	3.1859	1.0725
2.9413	-2.5402	2.4128
2.9768	-2.6233	4.2528
2.9178	-2.6228	1.195
3.004	-2.7532	5.6613
2.909	-2.7174	0.74091
2.9416	-4.6143	2.4279
2.9884	-4.7403	4.8513
2.9536	-4.7372	3.0489
2.9163	-4.7288	1.1148
2.9465	-4.8298	2.6841
2.9698	-4.9204	3.8922
3.051	3.6021	5.7376
2.9738	3.4593	1.7946
3.0074	3.4462	3.514
3.0667	3.4609	6.5386
3.0037	3.3377	3.3257
3.07	3.358	6.7086
3.0313	3.2631	4.7343
3.0041	3.1816	3.3448
2.9571	3.0805	0.94505
3.0593	-2.4964	6.1597
2.9715	-2.4764	1.6806
2.9889	-2.5428	2.5685
3.0211	-2.6227	4.2121
2.9728	-2.6323	1.7449
2.9387	-2.6532	0.0070619
3.0168	-4.6617	3.9917
2.9444	-4.6009	0.29502
3.023	-4.7763	4.3108
2.9579	-4.7248	0.98734
3.016	-4.8699	3.9532
3.0643	-5.001	6.4154
3.0253	3.4675	2.1551
3.016	3.4052	1.6881
3.0232	3.3616	2.0499
3.0021	3.2868	0.9896
3.0245	3.2596	2.1137
3.0301	3.2138	2.3971
3.0267	3.1584	2.2252
3.094	3.1757	5.6105
3.0461	3.0745	3.2032
3.0818	-2.4251	4.9953
3.0476	-2.4503	3.2765
3.0891	-2.5366	5.3639
3.0568	-2.5623	3.7367
3.0678	-2.624	4.2939
3.0101	-2.6261	1.3879
3.1174	-4.7463	6.7891
3.0969	-4.768	5.7547
3.1105	-4.8422	6.4416
2.9895	-4.705	0.35409
3.0327	-4.8249	2.528
3.0193	-4.8552	1.8541
3.1211	3.4728	4.6959
3.0911	3.3873	3.2119
3.1528	3.4018	6.2704
3.1308	3.3252	5.1768
3.0426	3.1803	0.80733
3.0483	3.1349	1.0914
3.1346	3.1707	5.3655
3.0803	3.0639	2.6771
3.1124	3.0434	4.2677
3.1518	-2.3911	6.2197
3.1628	-2.4528	6.7667
3.1373	-2.4859	5.502
3.1056	-2.5131	3.9276
3.0763	-2.5413	2.4769
3.0648	-2.5835	1.9076
3.1567	-4.7365	6.4646
3.0915	-4.6907	3.2304
3.1337	-4.8076	5.3224
3.1455	-4.8787	5.9055
3.1082	-4.8732	4.0567
3.1367	-4.9708	5.469
3.1844	3.4397	5.5825
3.1899	3.3926	5.8498
3.1329	3.28	3.065
3.2017	3.2988	6.4268
3.1288	3.1716	2.8627
3.1685	3.1592	4.803
3.1911	3.1287	5.9071
3.1641	3.0497	4.5897
3.1825	3.0146	5.4888
3.1017	-2.2679	1.5401
3.1259	-2.3376	2.7229
3.1749	-2.427	5.1149
3.1004	-2.4216	1.4765
3.1544	-2.5161	4.1138
3.1759	-2.5861	5.1657
3.1554	-4.6668	4.1627
3.1272	-4.6772	2.7883
3.1675	-4.7901	4.7574
3.0729	-4.6981	0.13526
3.1566	-4.8784	4.2212
3.1719	-4.9548	4.9679
3.1578	3.3112	2.1076
3.1533	3.2548	1.8921
3.1909	3.2414	3.7045
3.2383	3.2365	5.987
3.1995	3.1452	4.1155
3.1511	3.0461	1.7864
3.1503	2.9936	1.7452
3.2143	3.0018	4.8274
3.1331	2.8746	0.91839
3.2092	2.8919	4.5839
3.1216	-2.148	0.36328
3.1794	-2.2399	3.149
3.1978	-2.3053	4.0349
3.2486	-2.3951	6.4815
3.1793	-2.3961	3.1415
3.1602	-2.4335	2.2238
3.2577	-2.562	6.9203
3.1886	-4.6495	3.5896
3.1177	-4.5973	0.17796
3.1911	-4.7577	3.711
3.1621	-4.7663	2.3158
3.2057	-4.8845	4.4146
3.1908	-4.9142	3.7
3.2662	3.2717	5.1439
3.1818	3.1358	1.136
3.2681	3.1681	5.2367
3.2534	3.1012	4.5348
3.17	2.9705	0.57502
3.1909	2.9386	1.5689
3.1841	2.8808	1.2437
3.2859	2.9199	6.0818
3.1663	2.7624	0.39963
3.1999	-1.6027	1.9957
3.1838	-1.6461	1.2324
3.2681	-2.1648	5.2344
3.2512	-2.2062	4.4341
3.1902	-2.2163	1.5345
3.2431	-2.3054	4.0455
3.2279	-2.3468	3.327
3.234	-2.4035	3.6148
3.1593	-2.399	0.066563
3.2521	-4.6763	4.4748
3.2305	-4.6974	3.4494
3.2712	-4.8095	5.384
3.2729	-4.8648	5.4609
3.1707	-4.7642	0.60893
3.1989	-4.8583	1.9496
3.3224	3.2295	5.6503
3.3345	3.1881	6.2177
3.3449	3.1448	6.7064
3.3467	3.0932	6.7915
3.3273	3.0222	5.884
3.3225	2.9649	5.6591
3.324	2.9133	5.7285
3.2921	2.8328	4.2322
3.2635	2.7563	2.8946
3.2495	2.6927	2.2391
3.3144	-1.6901	5.2788
3.2249	-1.6958	1.0828
3.3384	-2.0747	6.402
3.3102	-2.1099	5.0796
3.2622	-2.1313	2.8321
3.2104	-2.1487	0.40722
3.2584	-2.2327	2.6519
3.3266	-2.3324	5.8476
3.3115	-2.3746	5.1416
3.2654	-4.6311	2.9825
3.2888	-4.7167	4.0798
3.2376	-4.6948	1.6791
3.2342	-4.7415	1.5215
3.2236	-4.7773	1.0233
3.2589	-4.8816	2.6793
3.3683	3.1769	5.6693
3.2634	3.0267	0.8225
3.3219	3.0288	3.5269
3.3773	3.0261	6.0847
3.3312	2.9325	3.9569
3.263	2.8212	0.80563
3.3267	2.824	3.7487
3.3608	2.8	5.322
3.3216	2.7152	3.5105
3.3892	2.7171	6.6348
